# .PCD v0.7 - Point Cloud Data file format
VERSION 0.7
FIELDS x y z
SIZE 4 4 4
TYPE F F F
COUNT 1 1 1
WIDTH 1513
HEIGHT 1
VIEWPOINT 0 0 0 1 0 0 0
POINTS 1513
DATA ascii
0.047972489 16.126404 -9.7418213
2.8286452 16.15807 -9.6295137
-12.533199 16.349131 -9.7008724
-10.86917 16.389954 -9.6336765
-10.585068 16.219891 -9.7377462
-9.8964138 16.267475 -9.713335
0.076837003 16.320812 -9.6669273
1.0696328 16.341465 -9.7416801
-9.9045849 16.493996 -9.7120876
-0.0046330895 16.594376 -9.7752771
0.083669007 16.549339 -9.7059793
2.7644558 16.529936 -9.6820488
2.8104148 16.519535 -9.6220264
-12.54629 16.66543 -9.6769772
-10.421427 16.737371 -9.6163721
-10.047106 16.745501 -9.7641649
-9.9130363 16.694584 -9.6966181
-0.0091416361 16.76033 -9.7660894
0.041100547 16.709232 -9.7091713
0.5784117 16.628611 -9.6823654
0.98791128 16.600103 -9.7859859
1.444459 16.752857 -9.7559919
-12.567319 16.969095 -9.6702003
-10.922745 16.811813 -9.6218691
-10.54507 16.829206 -9.7821093
-10.218501 16.86404 -9.7707739
-10.078096 16.979092 -9.698267
-9.9181557 16.89127 -9.6508341
-0.012449898 16.917385 -9.7550335
0.097701676 16.933777 -9.7106819
2.8039417 16.951109 -9.6657639
-12.590793 17.045771 -9.7656488
-10.040514 17.047268 -9.7207365
-9.9517107 17.06175 -9.7367315
-0.010031711 17.085545 -9.7027225
0.050914817 17.092068 -9.6753979
0.20723146 17.077993 -9.7038698
-12.564236 17.345592 -9.6619492
-10.023847 17.269278 -9.7090206
-9.936965 17.249596 -9.695076
-0.033917107 17.368225 -9.7781086
0.073737666 17.301056 -9.6303854
0.20871301 17.351971 -9.6303091
0.62705231 17.391106 -9.7769804
1.4289037 17.331007 -9.7134132
2.6927962 17.289585 -9.671299
-12.625468 17.512522 -9.7862673
-12.569262 17.460342 -9.6916656
-10.024129 17.491199 -9.6843777
-9.9707994 17.485844 -9.7602844
-0.036916256 17.437275 -9.7143507
0.0092989048 17.546791 -9.6772575
2.6852167 17.445475 -9.7265511
-12.594057 17.708126 -9.6795015
-9.9811726 17.747948 -9.7532654
-0.051013321 17.64661 -9.7799635
0.014047799 17.734219 -9.6657047
1.0541227 17.79023 -9.6720486
1.3055863 17.775856 -9.7938747
-12.609473 17.91552 -9.7125902
-12.584114 17.892136 -9.6442614
-9.9907026 17.826725 -9.7557735
-0.040954821 17.947088 -9.7066278
0.043617073 17.899513 -9.70224
1.3759456 17.940685 -9.7724361
1.9331875 17.816294 -9.712924
3.2194226 17.873173 -9.6043024
-12.63964 18.175293 -9.7313042
-12.570804 18.005314 -9.6045637
-9.9850216 18.00354 -9.7429218
-0.057702702 18.121069 -9.7070284
0.12846021 18.121572 -9.6587315
0.26852524 18.123781 -9.7113876
1.3446608 18.066431 -9.7310944
1.4356505 18.158064 -9.6183863
2.7300553 18.183172 -9.6043367
-12.643255 18.312309 -9.7437153
-10.811664 18.394814 -9.6214571
-10.562126 18.321743 -9.7390232
-0.056890469 18.333828 -9.7119617
0.029924633 18.314344 -9.6016178
0.55173069 18.321598 -9.7293262
1.395595 18.200401 -9.7096529
2.5659013 18.35696 -9.7597713
3.1834464 18.297527 -9.6751595
-12.64091 18.469185 -9.7126274
-10.553959 18.491562 -9.756319
-0.074500062 18.425434 -9.7690163
0.57398355 18.55559 -9.6860447
1.4437051 18.538708 -9.6023207
2.581686 18.529686 -9.7668972
2.6197329 18.502155 -9.6645126
3.1555984 18.563044 -9.7168741
-12.627946 18.726336 -9.6812592
-10.041744 18.717712 -9.7748003
-0.11162848 18.726971 -9.7693214
1.0314434 18.675869 -9.7483015
2.5910053 18.671551 -9.7017136
2.6295242 18.665085 -9.6241169
3.1328869 18.737989 -9.7421837
-12.638794 18.874748 -9.6740627
-10.032114 18.963884 -9.743082
-0.083596684 18.885086 -9.6885662
0.081582591 18.8703 -9.6849127
0.64374191 18.917015 -9.7769413
1.1058174 18.931622 -9.6787815
1.3238909 18.856554 -9.7802067
2.5798008 18.973 -9.7129059
2.6504502 18.921059 -9.6688099
-12.668474 19.119068 -9.7336884
-10.633578 19.110617 -9.6643906
-10.050062 19.003725 -9.7855635
-0.065883458 19.070137 -9.6527443
1.3276795 19.087448 -9.6713467
2.5958769 19.148188 -9.729126
2.6205955 19.077568 -9.6580553
3.1072774 19.058262 -9.7968731
-12.634217 19.284126 -9.6519356
-10.878922 19.247566 -9.6806364
-10.504189 19.239304 -9.7765446
-0.1115021 19.319847 -9.7034521
0.25369263 19.366224 -9.7052212
2.546032 19.261959 -9.7637014
2.6315894 19.323217 -9.6572771
-12.666706 19.518673 -9.6471004
-10.117846 19.455418 -9.7500935
-0.1368809 19.52338 -9.723774
0.067399628 19.586681 -9.7594881
0.64309239 19.400961 -9.757185
1.2444848 19.544346 -9.7174187
2.5557642 19.444508 -9.6965599
2.6031506 19.556599 -9.7200804
-12.714978 19.734325 -9.7054529
-0.12255004 19.6497 -9.7716885
0.009683351 19.621326 -9.7688789
0.20285459 19.672611 -9.6086855
0.59880614 19.732763 -9.6456337
0.99416161 19.78919 -9.7735634
1.0724767 19.796164 -9.7845135
2.5504696 19.727509 -9.738307
2.603791 19.757725 -9.6225872
-12.70224 19.877802 -9.7133331
-0.17081487 19.863939 -9.7680874
0.069827072 19.809071 -9.7713356
0.20428854 19.847588 -9.634943
1.0791156 19.825001 -9.7432499
1.267831 19.968904 -9.7832127
2.5692766 19.919117 -9.6489038
2.6633883 19.838144 -9.6256733
-12.71298 20.119656 -9.7089405
-0.14701682 20.055737 -9.7402563
1.2886891 20.075928 -9.7377853
2.5052376 20.085026 -9.7082787
-12.765711 20.326347 -9.7390156
-10.533125 20.275736 -9.7007313
-0.15820411 20.230862 -9.6873827
1.1646101 20.331337 -9.7713337
1.2897114 20.249447 -9.6440449
2.5175552 20.295332 -9.6926727
-12.810362 20.589834 -9.7991323
-12.731174 20.515812 -9.6355009
-10.557558 20.52034 -9.6968117
-0.14107291 20.535965 -9.6966505
1.2925099 20.499205 -9.6858492
2.5133696 20.522747 -9.7381535
-12.806783 20.647253 -9.7734299
-12.761728 20.662712 -9.7026443
0.60242486 20.720034 -9.7061214
1.2549669 20.614582 -9.723156
2.5193117 20.668152 -9.6624393
-12.846837 20.959404 -9.7819223
-12.780135 20.913303 -9.6685648
-4.9799414 20.926594 -9.6592131
0.65013015 20.928251 -9.639535
0.87365967 20.875715 -9.7249289
2.5045018 20.850513 -9.6846561
2.6301014 20.933077 -9.6122236
-12.835283 21.143305 -9.7661228
-12.757782 21.093876 -9.7299538
-11.313063 21.116051 -9.7513103
-10.906502 21.136734 -9.7684536
-10.62551 21.149921 -9.7937775
-9.5546408 21.090399 -9.7417192
-8.46033 21.042871 -9.66084
-8.1225424 21.059465 -9.7787571
-7.8855696 21.076233 -9.6950216
-7.485507 21.103401 -9.7721891
-6.2277484 21.172993 -9.6929426
-3.7245591 21.032047 -9.711235
-2.6700842 21.110004 -9.7792912
-0.55256486 21.014763 -9.6643534
0.36427405 21.082386 -9.6791878
1.0555689 21.059353 -9.7367716
2.4725134 21.050472 -9.7261238
-12.845429 21.276989 -9.7702045
-12.776699 21.360691 -9.7018051
-9.4520416 21.299276 -9.7119427
-8.5723457 21.313288 -9.7846909
-6.2263761 21.277254 -9.6936598
-5.2741899 21.392094 -9.6989727
-4.6686916 21.34877 -9.7205086
-2.9034164 21.287884 -9.6936235
-1.7432938 21.245285 -9.6836023
1.2332015 21.282795 -9.7471037
1.8978392 21.312658 -9.7329788
2.3956313 21.319796 -9.7937088
2.498436 21.277367 -9.6604939
-12.837645 21.510914 -9.7300873
-12.768667 21.509943 -9.6375675
-11.772478 21.565842 -9.657711
-10.974031 21.517471 -9.7534437
-7.9132013 21.565586 -9.7392178
-7.563405 21.574711 -9.7702446
-5.3306484 21.441416 -9.6692228
-0.95790654 21.403343 -9.7361259
0.68635523 21.400864 -9.7095966
1.3099973 21.463808 -9.6902218
2.4897962 21.516975 -9.6593246
-12.849991 21.685356 -9.7579899
-12.708003 21.69701 -9.7292099
-11.803486 21.738655 -9.7800837
-11.084336 21.73074 -9.730505
-7.8696589 21.618629 -9.7620754
-7.4831204 21.783585 -9.7443886
-7.3631277 21.709801 -9.7639494
-4.7870173 21.644587 -9.6108561
-4.5957437 21.658957 -9.752614
-2.4754844 21.643545 -9.6330357
-0.86088812 21.744125 -9.6185598
-0.58023983 21.788258 -9.7540674
-0.2477891 21.606064 -9.777133
0.69352829 21.780785 -9.724844
0.98023415 21.79339 -9.6118994
2.4444585 21.675049 -9.7211399
-12.859555 21.943905 -9.7400589
-12.793203 21.95166 -9.6457558
-12.250702 21.836721 -9.7587185
-10.236878 21.99194 -9.7895899
-10.19672 21.946543 -9.7826061
-9.8411512 21.91861 -9.741045
-8.0297375 21.921265 -9.671524
-4.1261129 21.859016 -9.7499161
-3.7477884 21.879965 -9.7818308
-3.4511626 21.958059 -9.7910547
-2.1967459 21.817699 -9.7011166
-0.20144181 21.98699 -9.6037931
1.122551 21.847439 -9.722518
2.3985507 21.819088 -9.749217
2.4637971 21.937267 -9.6971912
-12.860396 22.077526 -9.7158928
-12.773979 22.105022 -9.6180058
-12.252216 22.145504 -9.7086697
-11.824523 22.081177 -9.7128038
-10.174895 22.184359 -9.7729979
-9.4599686 22.085968 -9.6669502
-6.5395536 22.191872 -9.7108145
-6.2041087 22.082262 -9.7872725
-0.13110828 22.093529 -9.7072325
2.3895421 22.162697 -9.7991695
2.4342222 22.102589 -9.7198458
-12.871777 22.280092 -9.7696724
-10.168266 22.344585 -9.7878075
-7.4024377 22.352877 -9.7850237
-7.0146642 22.315546 -9.7913465
-5.4113369 22.321098 -9.7475815
-4.2157416 22.307091 -9.7999859
-2.6382654 22.355312 -9.6628036
-1.7680376 22.201181 -9.6661644
-0.31422693 22.219181 -9.7341824
1.3434954 22.237244 -9.63731
1.6830785 22.261032 -9.7805939
2.3891521 22.309944 -9.7817974
2.4455647 22.307726 -9.7033844
-12.864817 22.493057 -9.7684021
-12.795045 22.52853 -9.7029266
-12.260496 22.533924 -9.7475986
-11.335619 22.492264 -9.653347
-10.653856 22.533821 -9.7703342
-10.165407 22.550858 -9.7818813
-9.3281364 22.532595 -9.7878895
-8.1030207 22.485561 -9.696207
-7.8780489 22.535143 -9.6882877
-7.7388511 22.507706 -9.7131348
-7.5051079 22.578739 -9.7068119
-5.7352448 22.571075 -9.6841965
-0.32266638 22.494761 -9.7037849
0.32224137 22.464798 -9.6989651
0.7040695 22.438097 -9.7540722
1.096076 22.501007 -9.7386599
1.571795 22.417023 -9.6204176
1.8790079 22.446142 -9.7289457
2.358201 22.496605 -9.7906361
2.4193215 22.493938 -9.7136059
-12.921291 22.741644 -9.7802849
-10.144033 22.672337 -9.7834969
-8.5636702 22.681425 -9.772666
-7.3376598 22.63517 -9.6889486
-7.1869249 22.772966 -9.7167711
-6.1078544 22.686438 -9.6856689
-5.3247271 22.676502 -9.6526375
-3.0503809 22.602747 -9.6580667
-2.7093372 22.616722 -9.7468452
-1.7394781 22.756781 -9.6336765
-1.4128746 22.674269 -9.7789679
2.3749261 22.73348 -9.7634907
2.4351614 22.6371 -9.6598845
-12.940056 22.91573 -9.7641859
-11.768469 22.877777 -9.7959232
-11.432673 22.865356 -9.7576141
-10.979592 22.934038 -9.6468086
-10.590968 22.881132 -9.7472687
-10.12599 22.864351 -9.769165
-9.8167515 22.982239 -9.7168188
-9.0675602 22.964485 -9.7513752
-8.6104794 22.960157 -9.7500591
-8.1937332 22.953957 -9.775959
-7.9386969 22.897083 -9.7949753
-5.734251 22.963135 -9.795845
-5.0132513 22.866507 -9.7645473
-4.6612878 22.92174 -9.7920685
1.2722344 22.945196 -9.6214085
2.3653998 22.92181 -9.7330103
2.4235988 22.89114 -9.6644077
3.0722558 22.834133 -9.6126165
-12.901987 23.100418 -9.7370014
-10.118187 23.037785 -9.7740269
-8.0740023 23.005867 -9.7411385
-6.5724478 23.094719 -9.6805763
-5.0804811 23.011536 -9.7952976
-2.166724 23.138931 -9.6438084
-0.30372983 23.158102 -9.7907629
0.61613268 23.015011 -9.7060413
1.0166866 23.083353 -9.7154284
1.3785092 23.069912 -9.7976246
1.6695302 23.120651 -9.7195415
2.3841145 23.138477 -9.7549858
2.4287832 23.047771 -9.6361876
3.0490768 23.113358 -9.6503839
-12.935654 23.318264 -9.699461
-11.333508 23.295584 -9.7015724
-10.591269 23.300537 -9.7886305
-10.221492 23.275284 -9.7758408
-10.093771 23.311028 -9.7556057
-9.3044786 23.287647 -9.7509489
-8.1889801 23.249765 -9.7822275
-7.9068708 23.290333 -9.7350063
-7.6921 23.29026 -9.7153721
-5.1727209 23.346752 -9.6383572
-3.6469879 23.221748 -9.6230917
-3.4071627 23.258385 -9.6839809
-0.9859603 23.287199 -9.7309484
-0.32258576 23.330811 -9.7454128
0.46092644 23.25094 -9.7238731
2.342777 23.336636 -9.7876883
-12.911417 23.473625 -9.6676817
-12.760776 23.512009 -9.7472191
-10.068914 23.526867 -9.7477598
-7.818944 23.513153 -9.7446899
-6.5111456 23.552582 -9.7637205
-5.7422218 23.423016 -9.7640076
-4.9923201 23.45768 -9.7575569
-3.065609 23.543108 -9.6762333
-1.7878596 23.511942 -9.7872562
-0.3414405 23.430779 -9.6559143
2.329607 23.523081 -9.7723789
2.4146543 23.493137 -9.6913452
3.029793 23.40114 -9.6916008
-12.924585 23.672592 -9.6616774
-12.673128 23.73844 -9.7588272
-10.908315 23.630526 -9.6939516
-10.604363 23.719227 -9.7886219
-10.07115 23.68264 -9.7439251
-9.3232756 23.694656 -9.7172384
-8.5407209 23.754499 -9.7694168
-7.7502451 23.668507 -9.6886024
-7.4690361 23.765766 -9.775795
-7.0417662 23.742275 -9.7686558
-6.6377692 23.731167 -9.7494736
-6.1406746 23.784281 -9.7956409
-5.6209173 23.708834 -9.7950859
-5.5959129 23.757505 -9.6952353
-4.994607 23.741718 -9.7869644
-2.4495168 23.691452 -9.7708092
-0.43442115 23.78075 -9.6011505
-0.18841295 23.702637 -9.6494722
1.8277479 23.762403 -9.6792002
2.3736949 23.716618 -9.6745024
2.4330549 23.75182 -9.6122894
3.004303 23.686525 -9.7294359
-12.933241 23.890581 -9.616436
-12.237693 23.969707 -9.6649303
-11.973323 23.826157 -9.7408085
-10.291972 23.971846 -9.6253223
-10.043448 23.88039 -9.7283974
-8.0355692 23.804989 -9.7034206
-5.6712728 23.854939 -9.6694374
-5.5386424 23.864986 -9.6745253
-5.335433 23.931713 -9.6645527
-4.9703498 23.830723 -9.7909622
-4.2441535 23.929081 -9.75103
-2.222482 23.833141 -9.7349567
-1.7385433 23.885765 -9.7646933
-0.63299918 23.98386 -9.7835531
-0.49710116 23.909618 -9.6887436
0.27950642 23.807426 -9.7855892
1.2209754 23.974857 -9.7816706
2.3331633 23.964993 -9.7461319
2.4040647 23.815624 -9.6366224
2.9802721 23.98925 -9.7710896
-10.46006 24.031595 -9.7077131
-10.012177 24.005819 -9.7189932
-9.9597988 24.037876 -9.7491665
-9.6770935 24.155521 -9.7865868
-8.9937067 24.130375 -9.7347727
-7.5058775 24.082947 -9.714654
-6.1982203 24.157818 -9.7878838
-5.1936822 24.020721 -9.6978378
-3.8329854 24.132872 -9.7229223
-2.6349463 24.082264 -9.7130938
-1.7836788 24.045242 -9.7147007
-0.66930515 24.002953 -9.7681026
-0.45704034 24.069908 -9.6571627
0.66249281 24.092081 -9.7786226
1.0788348 24.154078 -9.7047281
1.3390512 24.143841 -9.6717787
1.6726815 24.114128 -9.6429443
2.335052 24.093563 -9.7019844
2.4026091 24.120924 -9.6433897
-9.252615 24.250999 -9.7665062
-8.558363 24.287525 -9.7351494
-8.2071428 24.236542 -9.6989098
-7.3491344 24.305166 -9.7721176
-7.1695452 24.384212 -9.7815838
-6.0210075 24.31003 -9.7433643
-5.8385425 24.321527 -9.7636242
-5.6152873 24.200264 -9.6652126
-5.5766039 24.305222 -9.7876377
-5.0742683 24.214752 -9.7789345
-3.0002604 24.31871 -9.7759104
-0.5188328 24.236176 -9.6262569
-0.29166579 24.218046 -9.636097
0.22403626 24.215656 -9.7869129
1.3036845 24.34404 -9.7058086
1.6265075 24.373272 -9.7139807
2.3351946 24.271648 -9.6751213
-9.2242775 24.470371 -9.6097069
-9.0725393 24.429932 -9.6499596
-8.9445133 24.47011 -9.7446117
-8.4990768 24.544849 -9.6944199
-7.267592 24.438906 -9.6770535
-7.1336226 24.464437 -9.7423
-6.983613 24.583641 -9.6119032
-6.5435085 24.592283 -9.7306633
-5.5104027 24.447008 -9.6153088
-5.3362885 24.505787 -9.7146664
-5.1264615 24.461239 -9.7402382
-4.9790654 24.598663 -9.7535925
-4.302906 24.545279 -9.6991119
-3.9090817 24.546188 -9.7735558
-3.5517156 24.508001 -9.7537661
-3.3249395 24.557554 -9.7765999
-2.4281991 24.404354 -9.7047634
-1.5067917 24.593876 -9.7948952
-0.81758904 24.534445 -9.6292906
-0.65581721 24.549273 -9.7393856
-0.57175601 24.453674 -9.6684513
1.3206269 24.439308 -9.6640301
1.5313122 24.52721 -9.63484
1.8359799 24.583931 -9.7553978
2.3326013 24.451496 -9.6684465
-10.415617 24.667751 -9.6159611
-7.0104771 24.620152 -9.6168633
-6.9735594 24.634108 -9.633728
-5.2787299 24.603996 -9.6284065
-5.0077391 24.630434 -9.78866
-4.9175262 24.652752 -9.7282715
-4.7050314 24.704983 -9.7553616
-3.5215304 24.611851 -9.6110344
-3.3159251 24.652554 -9.6845942
-1.6931593 24.712715 -9.7848301
-1.4552629 24.637028 -9.7532139
-1.3691227 24.733158 -9.6188755
-1.1207026 24.758797 -9.7502966
-0.90543818 24.627308 -9.6084776
-0.66702962 24.643148 -9.6878414
0.16936453 24.626408 -9.7515068
1.3876747 24.682549 -9.6280994
1.7594109 24.658001 -9.7896605
2.0334365 24.747316 -9.7831287
2.3281937 24.629814 -9.6625328
-12.568291 24.929619 -9.6141481
-12.260176 24.966087 -9.7293949
-9.9844284 24.959122 -9.752552
-8.9173365 24.947704 -9.7958326
-8.0323753 24.94701 -9.6542826
-7.7691994 24.95002 -9.779006
-6.989315 24.947697 -9.6502056
-6.1923585 24.881035 -9.6687117
-4.661087 24.896027 -9.7318211
-3.7666311 24.938515 -9.6626654
-3.4419932 24.910946 -9.6958714
-2.6391354 24.923401 -9.7905426
-1.8659209 24.934835 -9.7654295
-0.13677745 24.888769 -9.746048
0.19878447 24.845831 -9.7829046
0.30646294 24.831905 -9.7636518
0.58549201 24.913857 -9.7862701
1.7652092 24.881124 -9.7804375
1.9534612 24.89389 -9.7712059
2.2727726 24.934153 -9.7446976
-12.443104 25.131638 -9.6272535
-12.150485 25.186453 -9.7379284
-8.9570742 25.040676 -9.7235432
-7.7102356 25.080921 -9.727581
-6.0915341 25.071781 -9.6967411
-4.1242504 25.0376 -9.7296534
-3.5046542 25.077778 -9.7347298
-2.6109195 25.064415 -9.7187738
-1.8283753 25.126596 -9.7996931
-0.87412834 25.108582 -9.7068834
-0.64033574 25.139894 -9.7370768
0.25481629 25.161098 -9.7641878
0.4582552 25.067169 -9.7550478
0.9870919 25.078659 -9.7462978
2.2640171 25.155348 -9.7450275
-12.457997 25.35487 -9.6016846
-12.250544 25.328793 -9.6835508
-12.158924 25.38673 -9.7033901
-10.043862 25.28483 -9.6166935
-9.8332615 25.234747 -9.7126408
-7.4436531 25.23167 -9.7205782
-6.1298399 25.256584 -9.6432247
-4.2301807 25.256376 -9.6357441
-3.7220721 25.325752 -9.7365532
-1.8509334 25.376989 -9.7073355
0.14951386 25.228996 -9.7606239
0.3610841 25.336683 -9.7394924
2.0787227 25.208317 -9.6274357
2.2968113 25.243582 -9.6782894
-12.264281 25.455513 -9.6631641
-12.158384 25.470062 -9.6933098
-7.8065338 25.54744 -9.6582794
-5.742671 25.446005 -9.6907005
-3.7455363 25.423841 -9.6693268
-2.2157879 25.468216 -9.6276779
-1.8720534 25.443855 -9.7701025
-0.49244395 25.504246 -9.6823959
0.15992224 25.551403 -9.6559601
0.31074557 25.545164 -9.7651567
0.49180001 25.551025 -9.6980228
0.92715096 25.430216 -9.7088432
1.8519238 25.437508 -9.6846228
2.2834947 25.472996 -9.6773815
-12.238898 25.687752 -9.6451206
-12.175139 25.66342 -9.6643171
-10.015631 25.777309 -9.6123304
-5.6363831 25.724506 -9.6527443
-5.5226221 25.770451 -9.6600513
-1.6536012 25.718336 -9.6202135
-1.4897891 25.766731 -9.6735764
0.2949996 25.659615 -9.670887
0.54108942 25.68541 -9.725832
0.95234066 25.758263 -9.7971878
-12.160833 25.863136 -9.6508627
-11.891713 25.854755 -9.7696838
-9.7593822 25.866915 -9.6970119
-7.6993761 25.877968 -9.6425056
-7.3675723 25.864092 -9.7966928
-5.4532542 25.903519 -9.6183672
-3.6490848 25.829893 -9.6112289
-3.3813109 25.810101 -9.6994038
-1.451809 25.829197 -9.643465
-1.0255681 25.832901 -9.7970076
2.2594755 25.814644 -9.6758327
2.4156504 25.846169 -9.7397346
-12.127991 26.048082 -9.6532116
-11.758241 26.0776 -9.7964096
-9.7256393 26.062246 -9.6758537
-9.5023737 26.05048 -9.7847576
-5.2559485 26.179922 -9.6206236
-5.036098 26.121843 -9.7707539
-1.3517231 26.139244 -9.7366905
-1.0292677 26.194418 -9.7073059
0.66772473 26.044495 -9.7483292
1.3341494 26.126211 -9.7713728
1.4421356 26.178768 -9.7515984
1.6912407 26.102619 -9.7679033
-7.6499872 26.215639 -9.6216888
-3.6417956 26.33448 -9.6039934
-3.5978081 26.325958 -9.6614132
-2.9606857 26.202456 -9.7008276
1.0594028 26.268063 -9.697876
1.3732812 26.213947 -9.686862
1.5101908 26.276173 -9.7171402
1.7008916 26.323086 -9.6469393
2.198642 26.32675 -9.7394953
2.2169461 26.331707 -9.6949692
-12.011344 26.521214 -9.6734266
-11.96661 26.578056 -9.6405029
-9.79002 26.557243 -9.6143818
-4.9407835 26.467079 -9.7290459
-4.5791736 26.525358 -9.7913046
-2.8792028 26.52508 -9.6508293
-2.5354154 26.52174 -9.7663059
-0.87792176 26.55529 -9.6608143
-0.25187409 26.550224 -9.7485962
1.8674878 26.561584 -9.7426596
2.1831963 26.492254 -9.714673
2.2217503 26.469664 -9.6821957
-10.453596 26.729612 -9.614933
-10.167912 26.775944 -9.6786251
-8.0013971 26.665735 -9.6292934
-7.8234267 26.664408 -9.6672697
-5.7747755 26.644398 -9.7098999
-4.2437949 26.658466 -9.7976856
-0.52782822 26.666874 -9.6494131
-0.18667153 26.60146 -9.7953854
1.1659912 26.676838 -9.6336308
1.2467494 26.737061 -9.653265
1.6434414 26.616249 -9.6007776
-9.7967129 26.816473 -9.6120768
-8.1296635 26.912159 -9.6272182
-7.7585058 26.923519 -9.6312141
-6.9945316 26.844034 -9.6779594
-4.9926028 26.811995 -9.735076
-4.2845087 26.834095 -9.7518883
-2.9600315 26.812439 -9.6650095
-2.5571887 26.825607 -9.6738338
-0.91772032 26.815311 -9.6320972
-0.463725 26.878895 -9.6331253
-0.10802526 26.854063 -9.6742115
1.253798 26.811567 -9.6106281
2.1719174 26.832775 -9.6346302
-5.7106094 27.041908 -9.6402054
2.1783419 27.149794 -9.6636086
-2.141145 27.20582 -9.6151838
-1.8993142 27.258541 -9.7155914
-1.4472766 27.252258 -9.7637539
1.0878909 27.220583 -9.7272205
1.2378337 27.206253 -9.7454329
-7.4339561 -9.4941187 -9.5792961
-7.3768387 -9.4704933 -9.4647532
-7.4406576 -9.2971735 -9.5462475
-7.3843751 -9.3809223 -9.4725876
-7.4422879 -9.0674 -9.5348454
0.47086361 -8.8665371 -9.4634428
0.46299273 -8.7729263 -9.4971199
-7.4593887 -8.4898701 -9.4915743
0.39706421 -8.4897919 -9.5729198
0.43096483 -8.5669613 -9.5052967
2.7219036 -8.411931 -9.4872055
2.8973584 -8.4539967 -9.5471096
3.0482385 -8.4006395 -9.5940857
0.39214933 -8.2003403 -9.5881796
3.3175991 -8.246459 -9.5783854
0.43619871 -8.1686974 -9.4960756
2.5269692 -8.1102886 -9.5161724
2.9540627 -8.1227417 -9.4212618
2.5318148 -7.8093538 -9.565958
2.9232645 -7.8627038 -9.5023661
3.3495271 -7.8775425 -9.5853262
-7.5068717 -7.7772841 -9.533906
0.39003015 -7.7500525 -9.5315475
0.435031 -7.7817516 -9.4408398
2.6497986 -7.7639322 -9.488699
0.37188649 -7.4829531 -9.5530186
2.9450605 -7.4402404 -9.5265169
3.2105105 -7.5784988 -9.5902462
-7.5341668 -7.3826728 -9.5280151
2.5452905 -7.3629136 -9.5019512
0.36213437 -7.041945 -9.5278206
2.2352338 -7.1137581 -9.4166107
2.5554676 -7.065218 -9.5445671
-7.5348377 -6.9587135 -9.4922218
2.9150949 -6.9430766 -9.5714693
-7.5688167 -6.6145215 -9.5254745
0.33295816 -6.6616735 -9.5473013
-7.6065683 -6.4879632 -9.5673161
2.1687522 -6.4885097 -9.4287148
2.5842736 -6.5898581 -9.5406246
-7.5455127 -6.2398357 -9.4237719
0.3137114 -6.2226915 -9.535696
2.1893013 -6.2101278 -9.4191799
2.2604439 -6.2101178 -9.4644451
2.4952359 -6.3156724 -9.583231
-7.6177249 -6.1239939 -9.5622158
2.1572747 -5.8489923 -9.5085354
2.2093043 -5.9390988 -9.5174608
2.4553339 -5.9114695 -9.5683222
-7.6309547 -5.7030306 -9.5452175
-7.5674572 -5.793273 -9.4293289
0.29725978 -5.7491503 -9.5231037
-7.6426115 -5.5262718 -9.5394526
2.2589653 -5.4353285 -9.5136929
0.26700842 -5.3606777 -9.5404005
2.1099257 -5.3446989 -9.4679565
2.4785736 -5.3913007 -9.5678301
-7.6380391 -5.1297407 -9.5056705
2.1588674 -5.0337238 -9.5381174
0.23973465 -4.9655318 -9.5225019
1.8984213 -4.9420738 -9.4184952
2.2371275 -4.946497 -9.5513773
-11.454314 -4.6174154 -9.5958052
-7.6704082 -4.6607499 -9.5121412
1.7739257 -4.7328286 -9.4537363
2.0179513 -4.6424408 -9.5596237
0.23639779 -4.5952249 -9.4908094
-11.480389 -4.2159657 -9.5976562
-7.6935558 -4.2287579 -9.512249
2.1132021 -4.3161879 -9.5526514
-11.456517 -4.1364899 -9.5446997
0.18511243 -4.1729412 -9.5474215
1.7289524 -4.199481 -9.4010162
-11.466434 -3.8341241 -9.5592279
1.8310757 -3.8285637 -9.5095062
-10.738905 -3.6659024 -9.4886608
-10.410024 -3.7307954 -9.4381485
-9.1191387 -3.6043038 -9.4675484
-8.5882797 -3.6112726 -9.4635334
-8.3141851 -3.6022005 -9.5096693
-7.7254906 -3.7907009 -9.4888439
0.17650817 -3.7491705 -9.5133753
-11.509823 -3.4318199 -9.5587654
-10.485113 -3.4342711 -9.4445143
-10.237924 -3.4104471 -9.5146236
-10.042892 -3.4285948 -9.5827684
-9.9116268 -3.5580449 -9.5355225
-9.2997503 -3.5842266 -9.4258614
-8.9274893 -3.5946853 -9.52069
-8.5965195 -3.5955992 -9.4717045
-8.2200928 -3.5897877 -9.4872684
-7.920733 -3.5834022 -9.4520845
-7.7350044 -3.5724554 -9.5054903
1.7912338 -3.457731 -9.5293198
-10.564285 -3.3370848 -9.4787807
-10.388044 -3.3685815 -9.5904675
0.16513212 -3.3290858 -9.4950047
1.6984465 -3.3031645 -9.4704189
-11.51149 -3.1084678 -9.5731516
-10.266986 -3.1124363 -9.5317078
1.4391571 -3.0504866 -9.4629431
-11.513912 -2.944217 -9.5441856
-11.218257 -2.8991864 -9.5897684
-10.0832 -2.9172952 -9.5911894
0.13240577 -2.9261796 -9.532959
0.20437178 -2.8568065 -9.4678574
0.53906745 -2.8472276 -9.535183
0.90758371 -2.8127487 -9.4586353
1.7068839 -2.8643849 -9.5750465
-11.526309 -2.7065296 -9.550642
-10.071342 -2.6813312 -9.5805473
0.70396888 -2.7957628 -9.4128723
0.85866284 -2.7854123 -9.4348459
1.0975251 -2.7836089 -9.4674397
1.3499855 -2.6812937 -9.4586525
1.5015399 -2.6908755 -9.521946
1.7229071 -2.7210927 -9.5707703
1.8713882 -2.71278 -9.5086975
3.8425233 -2.6271777 -9.5715618
-11.510636 -2.5063477 -9.4889946
-11.123833 -2.5186737 -9.4373569
-10.533873 -2.4235954 -9.4447327
-10.327419 -2.4204259 -9.5095348
1.4238461 -2.5961742 -9.576725
3.8578489 -2.5474188 -9.5376625
-11.493868 -2.284977 -9.4397221
-11.348393 -2.2676952 -9.5018826
-11.122412 -2.3013835 -9.499712
-10.823279 -2.3864167 -9.4123573
-10.70248 -2.3425252 -9.4811497
-10.344547 -2.3207874 -9.5107603
-10.119921 -2.3770781 -9.5414677
-9.8596268 -2.3061471 -9.4471512
-9.6948214 -2.326916 -9.4788609
-9.5573578 -2.2880955 -9.5315781
-9.3895168 -2.2978365 -9.5801659
3.7984765 -2.2210984 -9.5829773
3.856149 -2.270505 -9.481638
-11.602343 -2.1444423 -9.586401
-11.55366 -2.1800189 -9.5084381
3.8244977 -2.1711769 -9.5411568
-11.618015 -1.7640659 -9.5891171
-11.581835 -1.7922165 -9.5236244
3.7979367 -1.7663151 -9.5441885
-11.625092 -1.2691435 -9.5662785
-11.557894 -1.3406812 -9.4217758
3.7824543 -1.3709118 -9.5416718
-11.584637 -1.0155209 -9.4271374
-11.620571 -0.97548819 -9.5167894
3.7675996 -0.92378265 -9.5104923
-11.590853 -0.63095236 -9.4251747
-11.650732 -0.54425633 -9.5365648
3.7541652 -0.59818679 -9.5071239
-11.686395 -0.091973178 -9.5755062
3.7249551 -0.094006121 -9.5056562
3.6907966 0.16402717 -9.5263596
-11.671513 0.28782988 -9.5046349
2.7939298 0.39988303 -9.5994711
2.8956709 0.37379581 -9.5433407
3.000114 0.29717273 -9.5380096
3.3132799 0.26822406 -9.4821806
3.4302838 0.26376128 -9.5282135
3.7122478 0.24270852 -9.5006657
2.7881017 0.59154594 -9.459774
2.8224666 0.53183174 -9.4569616
3.3538287 0.40914145 -9.4098034
3.6637425 0.54224372 -9.5430775
-11.709585 0.7016567 -9.5485754
2.7722111 0.67305923 -9.5459118
2.8262575 0.71116459 -9.480999
3.1098187 0.63919747 -9.4611683
3.4662576 0.6702975 -9.4752598
3.6497335 0.68545181 -9.551115
2.7662117 0.93690068 -9.4947186
2.8248401 0.86205137 -9.4463272
3.0634401 0.9348042 -9.5337772
3.3852301 0.94228101 -9.4840755
3.4293458 0.95660371 -9.504097
3.6570039 0.90503812 -9.5280819
-11.702852 1.1033078 -9.5107632
2.7568126 1.0157627 -9.4709778
3.0421803 1.0906937 -9.5852451
3.3401947 1.057755 -9.5444775
3.4355688 1.0528514 -9.482914
3.6508777 1.0845046 -9.5430727
2.8009875 1.2531261 -9.5171642
3.0824082 1.3443609 -9.4551754
3.3717453 1.3484156 -9.5567417
3.4893987 1.3815041 -9.4783134
3.6135867 1.293041 -9.5583878
-11.734421 1.5174928 -9.5373421
0.89637095 1.5101466 -9.5826225
2.9943304 1.401219 -9.5110836
3.3711915 1.4193792 -9.5317478
3.5043044 1.4858112 -9.4852448
3.6350565 1.454644 -9.5079269
0.90798211 1.6655097 -9.5521793
3.5867963 1.7193838 -9.5771418
-11.772697 1.9549379 -9.5547724
0.89386594 1.8843591 -9.5327168
3.6150899 1.8412032 -9.5230904
-11.781984 2.1549618 -9.5623121
-9.0845766 2.1972961 -9.4378586
0.85885847 2.0965691 -9.587698
0.89355814 2.333174 -9.4885025
3.5647159 2.252708 -9.5723963
3.6323445 2.2390025 -9.4292383
-11.807639 2.594898 -9.5690098
-9.1094179 2.5512033 -9.4411869
0.87873024 2.484519 -9.5312033
-9.1506767 2.7089591 -9.4760437
0.87270129 2.7092755 -9.4651413
3.5653903 2.6461651 -9.528244
-9.1328087 2.9071765 -9.4378071
0.7976492 2.9501076 -9.5864477
0.84055102 2.9195693 -9.554965
-11.803305 3.0832186 -9.4991522
-9.2249784 3.0366969 -9.4876719
-9.1514912 3.0916505 -9.4574814
0.87494314 3.0484822 -9.4285259
3.5365798 3.0577564 -9.5368452
-9.2118778 3.2745814 -9.5928802
-9.1528187 3.3047619 -9.4306355
0.84030622 3.2676048 -9.4355965
-11.811061 3.4265702 -9.4922237
-9.2316456 3.4780259 -9.5382252
-9.1800785 3.4788451 -9.4505062
0.81690824 3.5520291 -9.4233618
3.5340819 3.4226246 -9.5006313
-9.2214212 3.7089477 -9.5625944
-9.1836233 3.706255 -9.4571886
0.79270756 3.7127957 -9.4565659
3.5076375 3.7695599 -9.5321836
-11.856833 3.9345059 -9.547533
-9.2574482 3.8865807 -9.4566689
0.8154335 3.972805 -9.5163345
2.2534933 3.893362 -9.5606174
-9.2423306 4.030365 -9.5558071
-9.1873274 4.1588478 -9.4196939
0.78950894 4.1663465 -9.4313211
3.5260761 4.1217728 -9.4334164
-11.327059 4.3210649 -9.5422649
-9.2359009 4.2967291 -9.5223274
0.75591838 4.2697372 -9.5583744
2.1849532 4.3685541 -9.5652571
2.2405839 4.3814945 -9.4682503
0.76378727 4.485796 -9.5331545
2.1725993 4.416954 -9.5729713
-11.340267 4.65662 -9.4375525
-10.668324 4.7287569 -9.4453621
-9.2325268 4.6885924 -9.4742661
2.1784651 4.7617064 -9.5713806
2.2355814 4.6464787 -9.4894819
3.4836657 4.6275463 -9.4613838
-11.835692 4.9560132 -9.4946985
-11.722873 4.9924583 -9.4459476
-10.649755 4.8892078 -9.4332991
0.71492463 4.8790016 -9.5550423
-11.489532 5.0649605 -9.5327301
-10.665407 5.1358528 -9.4326649
-9.235239 5.0870919 -9.4423676
0.72142845 5.0928793 -9.5248203
2.1766443 5.0984783 -9.5351954
2.2093916 5.04882 -9.4545174
3.4345987 5.0640006 -9.5582771
-11.516056 5.2909255 -9.5151863
0.71918535 5.2945232 -9.500803
2.1819239 5.2870312 -9.4914055
-10.708481 5.5312476 -9.4453402
-9.2782898 5.468955 -9.4958067
0.73344928 5.484868 -9.4567413
2.1405213 5.4880757 -9.5219364
2.2248118 5.4920735 -9.4145622
3.4231231 5.4617429 -9.5051556
-11.897594 5.7181125 -9.4712467
-11.652987 5.7025437 -9.5170212
-10.717014 5.7544756 -9.4750595
-9.901721 5.736721 -9.4964619
-9.2863255 5.6619549 -9.4896984
0.69132745 5.6180749 -9.5053368
2.182658 5.602458 -9.4172058
-12.003305 5.9685402 -9.5812607
-11.684909 5.9259682 -9.5642509
-11.549759 5.894691 -9.4416351
-10.793758 5.8822632 -9.5778179
0.69418812 5.8990583 -9.4972324
2.1306505 5.9365511 -9.4812231
3.3847046 5.8823524 -9.5301151
-10.752715 6.1346941 -9.4740391
-9.2723961 6.0634851 -9.4182148
0.67242241 6.0205894 -9.5373325
2.1109409 6.0267467 -9.5124474
-12.005987 6.2063761 -9.5733461
-11.654412 6.2960982 -9.5324268
-10.729312 6.2474074 -9.4939032
-10.516493 6.2466731 -9.4179039
-9.2927799 6.3024096 -9.4630785
0.59622389 6.3602057 -9.566967
0.66824079 6.2968259 -9.4961548
2.1420286 6.2771683 -9.4507113
3.3783731 6.2898397 -9.507019
-11.81132 6.4241624 -9.486371
-10.767536 6.5024343 -9.488555
-9.3178864 6.4328175 -9.4657631
0.68975449 6.5450935 -9.4256306
3.3783467 6.5776749 -9.4811792
-12.01219 6.6061444 -9.5798292
-11.699521 6.7399015 -9.4313164
-10.808461 6.7109361 -9.562604
-10.76613 6.7203884 -9.4673138
-9.3841314 6.7967553 -9.5887623
0.6423583 6.6594772 -9.535778
2.0771341 6.7138443 -9.5334883
-11.956189 6.8814969 -9.5598307
-10.801452 6.8533382 -9.5308962
-10.792242 6.9046655 -9.506361
-9.3459988 6.9282317 -9.4951229
0.65682185 6.9670639 -9.4624004
2.0824263 6.9501553 -9.4816837
-12.009339 7.0735364 -9.5701981
-11.986927 7.046288 -9.5888014
-10.804794 7.0537357 -9.5207653
-10.25453 7.1694632 -9.5304947
-9.9104881 7.115757 -9.4294262
0.59436214 7.1214004 -9.5808992
0.61391675 7.1534805 -9.5589085
2.0603471 7.0832052 -9.4998245
-12.024303 7.3797078 -9.5679865
-10.820506 7.3151274 -9.5208111
-10.738787 7.329319 -9.4978228
-9.4566832 7.310112 -9.5782604
-9.3470011 7.3342314 -9.4944115
-10.84239 7.4647121 -9.5614471
-10.780827 7.4541664 -9.4877224
-9.4209709 7.4185662 -9.5678349
-9.375392 7.5072732 -9.4847803
0.59261173 7.4834495 -9.5596409
0.63795555 7.561017 -9.4690323
1.980438 7.5458345 -9.5860691
2.0600994 7.476768 -9.4347076
-10.836634 7.7767396 -9.5657063
-10.629084 7.7944331 -9.566144
-9.4212198 7.6563654 -9.5776978
-9.3743095 7.6920862 -9.480999
2.0685997 7.7361016 -9.4503269
-12.029714 7.8689227 -9.5517921
-11.929256 7.911437 -9.4633656
-10.83967 7.893342 -9.5216274
-9.3478851 7.8361788 -9.4029179
0.56977254 7.9767146 -9.5466003
1.9923152 7.9491348 -9.5579348
-12.03098 8.0795727 -9.5507622
-11.969307 8.1529026 -9.498251
-10.847412 8.088747 -9.5043917
-9.432148 8.0228653 -9.5152225
-9.3781853 8.041955 -9.4386024
0.55837417 8.0878096 -9.5549927
0.65151125 8.1660509 -9.4054365
2.0375855 8.1940012 -9.4042377
-12.013403 8.3115854 -9.5379639
-11.932948 8.2306614 -9.4284096
-10.837361 8.2969685 -9.4451656
-9.4408798 8.3689175 -9.5673895
-9.391058 8.2676611 -9.4405718
0.56078029 8.29842 -9.5146999
0.6063143 8.3015862 -9.4195566
1.9729245 8.262598 -9.5476322
2.033293 8.3583488 -9.4466953
-11.990096 8.5072699 -9.4962101
-10.827454 8.5530548 -9.4527225
-9.429738 8.5269775 -9.4999733
0.53358948 8.5049601 -9.5414648
0.61340231 8.4929209 -9.4138374
1.9819884 8.4983749 -9.5038252
2.0238974 8.5277071 -9.4000235
-12.01325 8.6307678 -9.4942913
-10.838944 8.6817331 -9.4796629
-9.4534101 8.7375555 -9.5370865
-9.3974638 8.6756859 -9.4095287
0.52777922 8.7178135 -9.5317659
0.62456602 8.7987938 -9.4164734
0.83562875 8.7766676 -9.5478182
-10.84549 8.8988991 -9.4385777
-9.4666519 8.9381618 -9.5509071
0.54919219 8.8189211 -9.4676933
-12.04698 9.1209221 -9.5119133
-10.137988 9.022275 -9.423912
-9.4399109 9.1232328 -9.489872
0.53558081 9.1134758 -9.5745611
1.0981157 9.0445461 -9.5027494
1.9777617 9.0240364 -9.4283218
3.1961799 9.0988283 -9.5738115
-10.037209 9.3935518 -9.4174995
-9.4532642 9.3185749 -9.4799337
0.51900554 9.2273378 -9.545352
1.3589005 9.2620831 -9.4659023
3.2975211 9.3985348 -9.4130039
-12.069534 9.5260353 -9.4758911
-10.916073 9.5644636 -9.4694338
-9.4742279 9.5565014 -9.5109177
0.50571418 9.5591831 -9.4682236
1.1041679 9.4454851 -9.4229374
1.9565823 9.4032917 -9.4284315
3.1872344 9.4842472 -9.5826626
-10.843772 9.717576 -9.4032545
-9.7031851 9.716177 -9.4421244
-9.4948387 9.6696281 -9.5449448
1.9922525 9.7912483 -9.4039459
-12.115431 9.9312487 -9.5397921
-9.710762 9.8673668 -9.4856129
-9.512989 9.8894691 -9.5389109
0.48838413 9.9644165 -9.4720058
0.98629642 9.935976 -9.4384212
1.8942059 9.9785023 -9.5448608
3.1842151 9.8250456 -9.5644274
-9.4845772 10.136947 -9.4570265
0.45806023 10.184078 -9.5110254
0.6664319 10.149292 -9.4978867
0.87155902 10.154051 -9.4939442
1.352622 10.088451 -9.5674963
1.5399446 10.050541 -9.5361195
1.769279 10.097779 -9.5702095
1.832355 10.108061 -9.5265503
-12.084579 10.257864 -9.4580421
-10.928646 10.337662 -9.4229088
0.38923711 10.340059 -9.5699282
0.42010742 10.286079 -9.5386276
0.7384088 10.230829 -9.5385418
0.88728797 10.284388 -9.4060516
1.7532133 10.206382 -9.5810051
1.8639601 10.214861 -9.5812645
3.1666198 10.303085 -9.5340939
3.2309985 10.307377 -9.4298763
-9.5331421 10.516647 -9.498848
0.39291602 10.470184 -9.5555506
0.43339056 10.543686 -9.5402508
1.8821137 10.557307 -9.4827404
3.9431961 10.474733 -9.4295607
-12.129171 10.656481 -9.4972343
-10.990943 10.781708 -9.5268707
-9.5616913 10.644041 -9.5588522
0.39463481 10.723536 -9.5689573
0.48813 10.708536 -9.5040503
0.65075493 10.646364 -9.5164938
1.1044075 10.743696 -9.4892902
1.8858793 10.697498 -9.4948339
3.135962 10.675777 -9.5493507
-9.5500154 10.881698 -9.508934
0.38633606 10.831049 -9.5767565
0.44245622 10.814816 -9.4511175
1.0182537 10.904839 -9.4625082
1.3936903 10.918609 -9.5105057
1.8930781 10.888197 -9.532383
3.9265282 10.876195 -9.4978304
-10.95345 11.002374 -9.4182615
-9.6110592 11.14993 -9.5297127
-9.5417185 11.060849 -9.4469433
0.38710859 11.092186 -9.5738516
0.52986902 11.117868 -9.4886379
1.8937811 11.048151 -9.4431009
3.1153738 11.130606 -9.5472641
-11.003564 11.275429 -9.4879122
-9.6295156 11.364345 -9.4428034
-9.5586128 11.263567 -9.4933252
0.37827361 11.32832 -9.5484753
0.44543362 11.268904 -9.50877
0.72746712 11.365316 -9.5122862
0.89311695 11.393093 -9.5456638
3.9014494 11.309045 -9.5678492
-12.15391 11.477303 -9.4735641
-10.996356 11.420647 -9.5033045
-9.8058586 11.463107 -9.4394207
-9.6610966 11.527459 -9.5420513
-9.5937738 11.523421 -9.4781075
0.37506697 11.533993 -9.5130396
0.44407934 11.463808 -9.4928074
0.70471287 11.476045 -9.5018682
1.3540785 11.593519 -9.4821749
3.1121037 11.487617 -9.5163641
-11.024089 11.657178 -9.5123901
-9.6132593 11.70659 -9.5499554
-9.5596342 11.688578 -9.4772129
0.37116331 11.685358 -9.5221958
0.43039644 11.70116 -9.506876
0.66134119 11.671226 -9.4524765
1.7759929 11.778164 -9.4248066
-12.163824 11.847303 -9.4563723
-11.010509 11.936298 -9.4474907
-10.216156 11.822372 -9.421917
-9.6617718 11.873023 -9.5079803
0.38271683 11.852161 -9.4974823
0.4796553 11.931877 -9.4665937
0.67946172 11.921557 -9.4574203
0.8906703 11.808674 -9.4929905
3.1146245 11.8333 -9.4578133
-12.175813 12.190374 -9.4690342
-10.914045 12.019477 -9.537159
-9.8730469 12.049121 -9.4550762
-9.6358576 12.144062 -9.5286732
-9.5860138 12.075033 -9.4209127
0.35082453 12.150993 -9.5442266
0.67173672 12.063066 -9.5435429
1.014665 12.164835 -9.4192972
1.7433379 12.10724 -9.4345417
1.8020836 12.155493 -9.5375633
-9.6594048 12.379474 -9.5361261
0.34723955 12.32185 -9.5093517
0.93804324 12.220572 -9.5441256
1.0420923 12.336284 -9.5088577
1.4183646 12.23779 -9.5275202
1.7958268 12.232415 -9.4267244
1.8292164 12.382179 -9.4004717
-11.049309 12.439773 -9.4846802
-9.6471357 12.429915 -9.5462761
0.35496092 12.547749 -9.4564152
0.49750823 12.447815 -9.4279718
0.62786633 12.533321 -9.5074921
1.7624956 12.530043 -9.5824051
3.0784845 12.416486 -9.4045591
-12.223513 12.685419 -9.5188141
-11.093996 12.778273 -9.5231686
-9.6361704 12.635597 -9.4966412
-9.5745668 12.693265 -9.4035072
0.32961604 12.68796 -9.516943
0.42744336 12.611948 -9.4069796
1.3058544 12.639901 -9.4748344
-11.08091 12.828324 -9.5124216
-9.597168 12.867135 -9.4321041
0.33707184 12.901608 -9.5181684
0.62896603 12.898278 -9.5526009
0.91162926 12.834093 -9.4374151
1.5604595 12.811911 -9.5572395
1.7457829 12.946735 -9.5838118
-12.2379 13.122309 -9.4848394
-11.053532 13.112057 -9.4542465
-9.6650677 13.074535 -9.4945421
0.33255935 13.082048 -9.4814768
1.7708645 13.081581 -9.4853973
2.9533577 13.054344 -9.5943298
-9.6276865 13.269696 -9.4663887
0.28527015 13.288643 -9.5770092
0.68512321 13.316973 -9.4479504
1.7087197 13.283537 -9.5763493
3.4174201 13.399184 -9.4194994
-12.275117 13.516501 -9.4821491
-11.091222 13.513261 -9.4826927
-10.272865 13.425991 -9.4893665
-9.6560154 13.427584 -9.4263172
0.3124848 13.484635 -9.4934902
1.7148132 13.526119 -9.5101604
3.0283899 13.444647 -9.447979
-11.116059 13.620339 -9.4926777
-9.667942 13.763285 -9.48036
0.29429743 13.699806 -9.4735031
1.7295191 13.701663 -9.5264425
2.4548874 13.779796 -9.4385471
3.379077 13.770466 -9.487442
-12.28092 13.884789 -9.4676704
-11.145458 13.923598 -9.5162001
-9.6823158 13.899251 -9.4737787
0.25486547 13.814367 -9.520607
1.4782948 13.931454 -9.5440559
1.7095908 13.963507 -9.5577087
2.363061 13.960502 -9.4174967
2.4028535 13.991054 -9.484787
-11.132058 14.005382 -9.4830723
-9.6895294 14.043468 -9.4916611
0.25665849 14.157784 -9.5271358
1.6687313 14.099391 -9.5582914
2.1663108 14.196194 -9.4582052
2.3670571 14.104536 -9.5382061
2.448652 14.062643 -9.4537582
2.9934244 14.156759 -9.4421711
3.3395615 14.15895 -9.559412
-12.312472 14.324176 -9.4687481
-11.137727 14.331934 -9.4953747
-9.6793566 14.338289 -9.4513016
0.24902177 14.274641 -9.5126104
1.452123 14.242458 -9.5258369
2.1351199 14.306253 -9.5327139
2.3693805 14.268075 -9.5493851
2.4480295 14.315424 -9.463912
-11.241598 14.42115 -9.5924635
-11.019708 14.414345 -9.5405636
-10.97855 14.418673 -9.5241308
-10.110835 14.46973 -9.4117794
-9.7196398 14.485279 -9.5090809
0.19327621 14.484986 -9.5724678
0.26032799 14.497179 -9.4808502
0.54757357 14.518438 -9.4683571
0.68502349 14.425257 -9.4847946
0.85466313 14.542154 -9.5625629
1.9941634 14.599775 -9.4090719
2.1535554 14.447332 -9.4781933
2.475625 14.474092 -9.4171839
-12.409199 14.72768 -9.5675592
-12.335218 14.706181 -9.4863853
-10.078658 14.609219 -9.5801287
-9.8014402 14.723273 -9.5913324
-9.7374611 14.716734 -9.5136375
0.18728782 14.722776 -9.5715313
0.21061257 14.723087 -9.5726995
0.5656358 14.798248 -9.4358702
1.4718624 14.648994 -9.4581165
1.6902282 14.712193 -9.4666214
1.9599148 14.728241 -9.4717321
2.0160472 14.766813 -9.401309
2.5414345 14.764626 -9.4501801
-11.171555 14.913012 -9.4847832
-9.7289896 14.822885 -9.4181395
0.18737286 14.970201 -9.5546894
0.22755414 14.830444 -9.5169258
0.52172178 14.857609 -9.4645653
0.90260863 14.821668 -9.5464525
1.3127233 14.867701 -9.5555363
1.4868338 14.968952 -9.5268755
1.6299286 14.864569 -9.5464439
1.9150455 14.83719 -9.5623035
-12.414867 15.0583 -9.5920238
-12.348106 15.033572 -9.4485712
-9.7468472 15.120464 -9.5246077
0.17995371 15.141573 -9.5175257
0.25770861 15.016388 -9.5034657
0.44928542 15.012476 -9.5387535
1.5573224 15.000814 -9.4790306
1.9287182 15.081884 -9.5373554
2.4516971 15.128331 -9.5698605
2.9561718 15.102657 -9.4348726
-12.418652 15.332338 -9.5708141
-12.343501 15.335566 -9.4144707
-11.20021 15.302434 -9.4801188
-10.263074 15.349167 -9.4798326
-9.7177658 15.389151 -9.4015036
0.15668863 15.272636 -9.5749435
0.2061234 15.311522 -9.4532175
1.6584731 15.386132 -9.4799128
2.29145 15.372686 -9.5271282
-11.218198 15.461244 -9.5221958
-11.131282 15.494188 -9.4794502
0.15093707 15.563347 -9.5438595
0.20218861 15.596203 -9.434165
1.6462734 15.435228 -9.4959259
2.8352854 15.4051 -9.5751114
-12.41815 15.672665 -9.5348196
-11.235315 15.748585 -9.5172443
-11.196804 15.673038 -9.4631567
-10.273121 15.700762 -9.409811
-9.7385883 15.631921 -9.4499836
0.169677 15.676702 -9.4921598
2.1495945 15.650817 -9.5179329
-12.430052 15.963617 -9.5593157
-9.7645807 15.941478 -9.4625111
0.16248988 15.84853 -9.4946499
0.21045749 15.845843 -9.4075937
2.9024491 15.867289 -9.4643669
-12.422235 16.196842 -9.489253
-11.228376 16.190212 -9.4759531
-11.085804 16.121727 -9.4989147
-10.265696 16.084541 -9.4489861
-9.8384914 16.154434 -9.5761137
-9.7795296 16.07707 -9.4831324
0.13705583 16.003595 -9.5284128
0.93074131 16.103683 -9.4315662
1.4912853 16.141897 -9.5017252
2.7889555 16.172707 -9.5997429
-12.429947 16.261168 -9.4959221
-11.140402 16.213984 -9.5127821
-9.850152 16.316113 -9.5691948
-9.7633724 16.325218 -9.4296484
0.13723239 16.369318 -9.5618324
0.48695004 16.244316 -9.450428
2.2573023 16.234047 -9.5806789
-12.413082 16.583 -9.4386187
-11.261374 16.43952 -9.4520731
-11.13995 16.416178 -9.5226831
-9.8333015 16.475498 -9.5493774
-9.7841244 16.443333 -9.4496861
0.10050187 16.495306 -9.5546522
2.3524818 16.490356 -9.5336704
-12.434685 16.709764 -9.4508362
-11.256998 16.694828 -9.4810591
-9.8520489 16.708939 -9.5759974
-9.7896557 16.692455 -9.4378204
0.15981689 16.699284 -9.4470396
0.26437226 16.662422 -9.4528904
0.45356289 16.637362 -9.4943705
2.7872176 16.640507 -9.581522
2.8360538 16.636835 -9.4711876
3.3389328 16.615417 -9.4028196
-11.263327 16.842709 -9.4886026
-11.113785 16.84296 -9.5421448
-10.180761 16.855263 -9.4771671
-9.840498 16.876869 -9.534771
-9.7928505 16.951271 -9.425622
0.1002277 16.881676 -9.5319672
0.2142311 16.917761 -9.4077873
1.5322399 16.929811 -9.5694208
2.7725153 16.999283 -9.5616035
2.841249 16.845013 -9.4243793
-12.482954 17.065191 -9.4975471
-11.228501 17.008827 -9.4754305
-9.8807859 17.12624 -9.5687332
-9.7932949 17.197697 -9.4032869
0.10243425 17.118116 -9.522747
0.21771753 17.001528 -9.4316387
1.5118436 17.112045 -9.4874907
3.2932043 17.045797 -9.4688807
-12.47114 17.288078 -9.4558907
-9.8666496 17.323341 -9.5331898
0.14170665 17.307804 -9.446806
2.7370181 17.324512 -9.5785465
3.2645345 17.392773 -9.5267057
-12.521723 17.555389 -9.5171471
-11.312056 17.572506 -9.4642391
-9.8865175 17.504799 -9.5477848
0.097437657 17.478024 -9.4866714
0.25153887 17.505871 -9.4978456
0.48816538 17.570417 -9.5148249
2.7695985 17.443087 -9.5223579
-12.507219 17.64542 -9.5064163
-11.32375 17.61108 -9.4811535
-10.314835 17.614414 -9.4029589
-9.9115238 17.716553 -9.5325546
0.076450333 17.677237 -9.4660206
-12.519016 17.917221 -9.4802608
-11.322062 17.840164 -9.4696693
-9.9008179 17.901882 -9.5220098
-0.0013593381 17.953436 -9.5933466
0.047647655 17.940844 -9.5079203
0.61315125 17.84066 -9.4675112
0.86977303 17.851017 -9.5317392
2.7759118 17.847166 -9.4700642
-11.309731 18.183903 -9.4528351
-9.883894 18.145689 -9.4072371
0.069021061 18.055389 -9.4873066
2.7670555 18.025604 -9.5374727
-12.53408 18.277918 -9.5132656
-11.319832 18.308903 -9.4342251
-11.038183 18.38069 -9.5388317
-9.9220715 18.260754 -9.5279608
-0.011666139 18.30928 -9.5666742
0.017357972 18.282585 -9.5616608
1.1071628 18.274078 -9.4678469
1.4239407 18.305708 -9.5374603
2.7158284 18.359058 -9.5209732
-12.54384 18.416027 -9.5553026
-11.319942 18.486568 -9.4412537
-11.15619 18.532806 -9.4963245
-9.9000187 18.445171 -9.4680099
-0.015983589 18.528862 -9.5620003
0.0715895 18.563568 -9.4454765
0.20622937 18.515118 -9.5142775
1.4676359 18.464561 -9.5175419
-12.567888 18.717567 -9.4974756
-11.344259 18.693581 -9.4387217
-9.9209232 18.624672 -9.4977617
-0.014575314 18.666111 -9.5740852
0.09838108 18.716278 -9.4359293
0.49566108 18.700737 -9.4375343
1.4682728 18.701206 -9.4907675
2.7359195 18.68787 -9.457983
-12.587156 18.902248 -9.5036411
-11.348498 18.944151 -9.4337835
-9.9206219 18.920815 -9.4788599
-0.016125692 18.908424 -9.5462608
0.0078113056 18.917767 -9.493351
1.4836314 18.940971 -9.4418631
2.6610708 18.872055 -9.5457611
-12.614638 19.139313 -9.5647545
-12.578729 19.068108 -9.4704294
-11.304543 19.139425 -9.4315386
-11.051996 19.145611 -9.487606
-10.083593 19.05349 -9.4081373
-9.9346762 19.002399 -9.49722
-0.031229177 19.168949 -9.5501909
0.012935059 19.144825 -9.4600945
1.5055858 19.122366 -9.4075327
2.7234137 19.09144 -9.408577
-12.619658 19.257137 -9.5446014
-12.587341 19.296797 -9.5503101
-11.344559 19.344536 -9.5654812
-11.009119 19.24575 -9.4742603
-10.267654 19.396919 -9.4400301
-10.096266 19.301205 -9.4681797
-9.9316998 19.353172 -9.4346857
-0.038828772 19.32538 -9.5280447
0.10672545 19.316391 -9.531004
0.5679425 19.313778 -9.4199724
2.6567318 19.292952 -9.5296612
-12.620937 19.471052 -9.5385714
-12.56033 19.454344 -9.429285
-10.253721 19.406353 -9.434679
-9.9558926 19.528967 -9.4293327
-0.024836477 19.535133 -9.4765759
0.1167656 19.51664 -9.4907112
1.4228301 19.451668 -9.4977131
2.6618619 19.456297 -9.4724083
-12.63306 19.691795 -9.5371361
-12.577376 19.697542 -9.494278
-10.017366 19.747812 -9.5685892
-9.9462538 19.602465 -9.4436703
-0.035344768 19.721287 -9.5123148
0.12911606 19.719761 -9.4386578
0.22000934 19.796005 -9.5140896
0.54872477 19.717918 -9.4979086
2.6723998 19.66383 -9.4722958
-12.63674 19.835632 -9.5362654
-12.588581 19.903183 -9.4937382
-11.392841 19.937576 -9.4118576
-9.9562721 19.855453 -9.4255457
-0.38607582 19.946886 -9.4634266
-0.034198795 19.83638 -9.4789696
0.16122109 19.806555 -9.5860205
0.23859081 19.804226 -9.4791193
2.6246138 19.939625 -9.5313044
-12.61797 20.172581 -9.5044765
-0.10361616 20.145115 -9.5814972
2.5798473 20.173836 -9.583354
2.629663 20.021927 -9.5300331
-12.661654 20.268345 -9.5242252
-10.917945 20.329832 -9.5359688
-0.43180004 20.242559 -9.519146
0.91255069 20.272652 -9.5014849
2.5661254 20.324421 -9.5362091
2.6302831 20.314415 -9.4528923
-12.638563 20.519188 -9.4555836
-12.579349 20.430845 -9.4163961
-10.926233 20.570293 -9.5395651
-0.47777897 20.56513 -9.5820255
-0.080094546 20.440866 -9.5038872
1.3144691 20.484241 -9.503746
2.5753665 20.520889 -9.543066
2.6369941 20.505404 -9.4874039
-12.650196 20.662014 -9.4686642
-0.057158634 20.684853 -9.4539022
0.13899416 20.690109 -9.4224014
1.3883369 20.731607 -9.413908
1.9172949 20.790258 -9.5674963
2.505424 20.659714 -9.5252333
2.6399941 20.758011 -9.438036
-12.638508 20.952175 -9.4407825
-5.0526948 20.948687 -9.4485617
-0.016335594 20.918465 -9.4064121
0.12251887 20.836567 -9.4083242
0.22000122 20.996798 -9.4119825
0.96326613 20.877953 -9.4055023
1.3484547 20.806728 -9.5214491
1.9949087 20.909023 -9.4571161
2.524467 20.943336 -9.5196896
2.6356585 20.818588 -9.4661856
-12.728155 21.122686 -9.5218353
-11.803928 21.147144 -9.5102692
-11.095534 21.131424 -9.4681911
-10.643167 21.122557 -9.4481792
-10.2019 21.039186 -9.470109
-7.8266268 21.084492 -9.537158
-7.3681326 21.133863 -9.4262705
-6.6315522 21.161518 -9.504035
-4.1102381 21.009983 -9.5032024
-3.8304205 21.0292 -9.4229984
-3.4539576 21.065353 -9.413126
-3.1066248 21.090103 -9.5284004
-0.10344764 21.0249 -9.5030012
0.5694114 21.117765 -9.5063162
2.5544667 21.017248 -9.5285091
2.6247735 21.164053 -9.4831734
-12.74467 21.375502 -9.5673389
-10.519165 21.270987 -9.4613276
-10.239275 21.254896 -9.4041195
-9.8894634 21.298487 -9.4274044
-8.9245358 21.307301 -9.4992981
-6.6407442 21.246964 -9.4063168
-6.1653109 21.317638 -9.4318333
